1.17208,-0.92592,2.50620
1.16854,-0.92080,2.49232
1.17150,-0.92080,2.49232
1.17013,-0.91741,2.48316
1.17092,-0.91573,2.47860
1.18473,-0.92421,2.50155
1.18769,-0.92421,2.50155
1.19065,-0.92421,2.50155
1.18702,-0.91910,2.48773
1.17697,-0.90906,2.46054
1.17560,-0.90576,2.45161
1.17637,-0.90412,2.44717
1.17927,-0.90412,2.44717
1.18217,-0.90412,2.44717
1.18507,-0.90412,2.44717
1.19664,-0.91072,2.46503
1.20395,-0.91405,2.47406
1.21355,-0.91910,2.48773
1.19884,-0.90576,2.45161
1.19094,-0.89761,2.42957
1.19167,-0.89600,2.42520
1.19669,-0.89761,2.42957
1.21487,-0.90906,2.46054
1.21557,-0.90740,2.45607
1.21406,-0.90412,2.44717
1.21257,-0.90085,2.43834
1.22208,-0.90576,2.45161
1.22721,-0.90740,2.45607
1.22566,-0.90412,2.44717
1.22856,-0.90412,2.44717
1.23370,-0.90576,2.45161
1.23660,-0.90576,2.45161
1.23951,-0.90576,2.45161
1.24241,-0.90576,2.45161
1.24532,-0.90576,2.45161
1.24822,-0.90576,2.45161
1.25340,-0.90740,2.45607
1.25860,-0.90906,2.46054
1.25922,-0.90740,2.45607
1.25756,-0.90412,2.44717
1.26046,-0.90412,2.44717
1.27026,-0.90906,2.46054
1.27318,-0.90906,2.46054
1.27609,-0.90906,2.46054
1.27668,-0.90740,2.45607
1.26351,-0.89600,2.42520
1.26638,-0.89600,2.42520
1.26698,-0.89439,2.42086
1.26306,-0.88961,2.40791
1.26591,-0.88961,2.40791
1.26877,-0.88961,2.40791
1.25374,-0.87710,2.37406
1.24128,-0.86645,2.34521
1.24191,-0.86494,2.34114
1.24253,-0.86345,2.33709
1.24530,-0.86345,2.33709
1.24807,-0.86345,2.33709
1.25955,-0.86946,2.35338
1.26897,-0.87403,2.36574
1.27177,-0.87403,2.36574
1.27458,-0.87403,2.36574
1.27738,-0.87403,2.36574
1.27572,-0.87098,2.35749
-1.46929,-1.02783,2.79099
-1.46598,-1.02783,2.79099
-1.45666,-1.02360,2.77950
-1.45038,-1.02150,2.77380
-1.43530,-1.01318,2.75120
-1.44085,-1.01941,2.76811
-1.43757,-1.01941,2.76811
-1.43723,-1.02150,2.77380
-1.43395,-1.02150,2.77380
0.08539,-1.28214,3.48154
0.08883,-1.27231,3.45483
0.09269,-1.26906,3.44602
0.09677,-1.26906,3.44602
0.10111,-1.27231,3.45483
0.10440,-1.26262,3.42853
0.10738,-1.24993,3.39407
0.11140,-1.24993,3.39407
0.12315,-1.24680,3.38556
0.12716,-1.24680,3.38556
0.13052,-1.24058,3.36868
0.13385,-1.23442,3.35196
0.27370,-1.15423,3.13420
0.27549,-1.14625,3.11253
0.27790,-1.14099,3.09825
1.21511,-1.08618,2.94943
1.21595,-1.08382,2.94300
1.21415,-1.07911,2.93024
1.21499,-1.07678,2.92389
1.20541,-1.06525,2.89259
1.22192,-1.07678,2.92389
1.21747,-1.06983,2.90503
1.22092,-1.06983,2.90503
1.18857,-1.03856,2.82012
1.14644,-0.99894,2.71253
1.14049,-0.99098,2.69091
1.11481,-0.96596,2.62299
1.11360,-0.96223,2.61284
1.09550,-0.94397,2.56326
1.09854,-0.94397,2.56326
1.09949,-0.94218,2.55841
1.09013,-0.93160,2.52966
1.09109,-0.92985,2.52493
1.09408,-0.92985,2.52493
1.09707,-0.92985,2.52493
1.10006,-0.92985,2.52493
1.09895,-0.92639,2.51553
1.10193,-0.92639,2.51553
1.10285,-0.92467,2.51085
1.10995,-0.92812,2.52022
1.11294,-0.92812,2.52022
1.11801,-0.92985,2.52493
1.12100,-0.92985,2.52493
1.12400,-0.92985,2.52493
1.12279,-0.92639,2.51553
1.12577,-0.92639,2.51553
1.12665,-0.92467,2.51085
1.12963,-0.92467,2.51085
1.12425,-0.91784,2.49232
1.12512,-0.91615,2.48773
1.12393,-0.91279,2.47860
1.13102,-0.91615,2.48773
1.13397,-0.91615,2.48773
1.13901,-0.91784,2.49232
1.13986,-0.91615,2.48773
1.14492,-0.91784,2.49232
1.14787,-0.91784,2.49232
1.15938,-0.92467,2.51085
1.16235,-0.92467,2.51085
1.16101,-0.92124,2.50155
1.16398,-0.92124,2.50155
1.16694,-0.92124,2.50155
1.17208,-0.92295,2.50620
1.17505,-0.92295,2.50620
1.17802,-0.92295,2.50620
1.18538,-0.92639,2.51553
1.18836,-0.92639,2.51553
1.19580,-0.92985,2.52493
1.19655,-0.92812,2.52022
1.19508,-0.92467,2.51085
1.19141,-0.91954,2.49693
1.18997,-0.91615,2.48773
1.17560,-0.90285,2.45161
1.17637,-0.90122,2.44717
1.17927,-0.90122,2.44717
1.18217,-0.90122,2.44717
1.18938,-0.90449,2.45607
1.19446,-0.90614,2.46054
1.21060,-0.91615,2.48773
1.20029,-0.90614,2.46054
1.18806,-0.89473,2.42957
1.19094,-0.89473,2.42957
1.19167,-0.89313,2.42520
1.19669,-0.89473,2.42957
1.20390,-0.89796,2.43834
1.21116,-0.90122,2.44717
1.20968,-0.89796,2.43834
1.21038,-0.89635,2.43394
1.22208,-0.90285,2.45161
1.22498,-0.90285,2.45161
1.23012,-0.90449,2.45607
1.23079,-0.90285,2.45161
1.23370,-0.90285,2.45161
1.23885,-0.90449,2.45607
1.24629,-0.90780,2.46503
1.24921,-0.90780,2.46503
1.25213,-0.90780,2.46503
1.25505,-0.90780,2.46503
1.25797,-0.90780,2.46503
1.26090,-0.90780,2.46503
1.26382,-0.90780,2.46503
1.26213,-0.90449,2.45607
1.26504,-0.90449,2.45607
1.27026,-0.90614,2.46054
1.27550,-0.90780,2.46503
1.27842,-0.90780,2.46503
1.27668,-0.90449,2.45607
1.26351,-0.89313,2.42520
1.25289,-0.88361,2.39936
1.25573,-0.88361,2.39936
1.25857,-0.88361,2.39936
1.26366,-0.88518,2.40363
1.23573,-0.86367,2.34521
1.23209,-0.85919,2.33306
1.22849,-0.85476,2.32103
1.23124,-0.85476,2.32103
1.23187,-0.85330,2.31705
1.22830,-0.84893,2.30519
1.22893,-0.84748,2.30126
1.19898,-0.82499,2.24020
1.26234,-0.86668,2.35338
1.26734,-0.86819,2.35749
1.27235,-0.86971,2.36161
1.27292,-0.86819,2.35749
-1.47260,-1.02453,2.79099
-1.46325,-1.02031,2.77950
-1.45995,-1.02031,2.77950
-1.45367,-1.01822,2.77380
-1.42983,-1.00379,2.73449
-1.42659,-1.00379,2.73449
-1.43205,-1.00992,2.75120
-1.42879,-1.00992,2.75120
-1.42553,-1.00992,2.75120
-1.42517,-1.01198,2.75681
-1.37770,-1.03522,2.82012
0.08539,-1.27802,3.48154
0.08952,-1.27802,3.48154
0.09269,-1.26498,3.44602
0.09677,-1.26498,3.44602
0.10111,-1.26821,3.45483
0.10521,-1.26821,3.45483
0.10765,-1.24905,3.40262
0.11112,-1.24278,3.38556
0.11484,-1.23968,3.37710
0.11914,-1.24278,3.38556
0.12377,-1.24905,3.40262
0.12781,-1.24905,3.40262
0.13151,-1.24591,3.39407
0.13485,-1.23968,3.37710
0.27423,-1.13732,3.09825
0.27790,-1.13732,3.09825
1.15873,-1.05057,2.86195
1.16706,-1.05505,2.87413
1.17047,-1.05505,2.87413
1.17889,-1.05955,2.88641
1.18484,-1.06182,2.89259
1.18320,-1.05729,2.88025
1.20983,-1.07798,2.93661
1.21068,-1.07564,2.93024
1.21415,-1.07564,2.93024
1.19431,-1.05505,2.87413
1.19517,-1.05281,2.86802
1.20112,-1.05505,2.87413
1.18189,-1.03522,2.82012
1.17785,-1.02878,2.80257
1.13186,-0.98583,2.68556
1.12387,-0.97612,2.65913
1.10955,-0.96099,2.61791
1.10622,-0.95544,2.60277
1.09454,-0.94272,2.56814
1.09550,-0.94093,2.56326
1.09646,-0.93915,2.55841
1.08714,-0.92860,2.52966
1.08810,-0.92686,2.52493
1.09109,-0.92686,2.52493
1.09818,-0.93034,2.53441
1.09913,-0.92860,2.52966
1.10212,-0.92860,2.52966
1.10305,-0.92686,2.52493
1.10605,-0.92686,2.52493
1.10697,-0.92513,2.52022
1.11203,-0.92686,2.52493
1.11294,-0.92513,2.52022
1.12011,-0.92860,2.52966
1.12310,-0.92860,2.52966
1.13033,-0.93209,2.53917
1.13122,-0.93034,2.53441
1.13210,-0.92860,2.52966
1.13297,-0.92686,2.52493
1.13173,-0.92341,2.51553
1.13471,-0.92341,2.51553
1.12928,-0.91658,2.49693
1.13224,-0.91658,2.49693
1.13730,-0.91828,2.50155
1.14450,-0.92169,2.51085
1.15391,-0.92686,2.52493
1.15045,-0.92169,2.51085
1.15558,-0.92341,2.51553
1.15856,-0.92341,2.51553
1.16588,-0.92686,2.52493
1.16887,-0.92686,2.52493
1.16533,-0.92169,2.51085
1.16398,-0.91828,2.50155
1.16694,-0.91828,2.50155
1.16991,-0.91828,2.50155
1.17723,-0.92169,2.51085
1.18240,-0.92341,2.51553
1.18981,-0.92686,2.52493
1.19281,-0.92686,2.52493
1.19580,-0.92686,2.52493
1.19879,-0.92686,2.52493
1.19508,-0.92169,2.51085
1.19583,-0.91998,2.50620
1.18778,-0.91153,2.48316
1.17988,-0.90323,2.46054
1.18280,-0.90323,2.46054
1.19441,-0.90986,2.47860
1.21068,-0.91998,2.50620
1.18938,-0.90158,2.45607
1.19446,-0.90323,2.46054
1.19737,-0.90323,2.46054
1.19593,-0.89995,2.45161
1.19020,-0.89346,2.43394
1.19094,-0.89185,2.42957
1.19381,-0.89185,2.42957
1.20536,-0.89832,2.44717
1.21046,-0.89995,2.45161
1.21336,-0.89995,2.45161
1.20968,-0.89507,2.43834
1.21038,-0.89346,2.43394
1.21986,-0.89832,2.44717
1.22498,-0.89995,2.45161
1.23012,-0.90158,2.45607
1.23303,-0.90158,2.45607
1.23819,-0.90323,2.46054
1.24337,-0.90487,2.46503
1.24629,-0.90487,2.46503
1.24921,-0.90487,2.46503
1.25213,-0.90487,2.46503
1.25505,-0.90487,2.46503
1.25797,-0.90487,2.46503
1.26090,-0.90487,2.46503
1.26151,-0.90323,2.46054
1.25756,-0.89832,2.44717
1.25818,-0.89669,2.44275
1.25202,-0.89025,2.42520
1.23931,-0.87920,2.39510
1.24215,-0.87920,2.39510
1.22758,-0.86691,2.36161
1.23038,-0.86691,2.36161
1.23317,-0.86691,2.36161
1.23597,-0.86691,2.36161
1.21540,-0.85055,2.31705
1.21606,-0.84909,2.31308
1.21671,-0.84764,2.30913
1.20097,-0.83480,2.27414
1.21595,-0.84332,2.29735
1.22075,-0.84475,2.30126
1.22556,-0.84620,2.30519
1.22830,-0.84620,2.30519
1.22476,-0.84189,2.29345
1.19304,-0.81827,2.22911
-1.46956,-1.01911,2.78524
-1.46325,-1.01702,2.77950
-1.45695,-1.01493,2.77380
-1.43598,-1.00258,2.74004
-1.42983,-1.00055,2.73449
-1.42659,-1.00055,2.73449
-1.43205,-1.00666,2.75120
-1.42879,-1.00666,2.75120
-1.42263,-1.00462,2.74561
-1.41363,-1.00055,2.73449
-1.37816,-1.02973,2.81425
-1.36913,-1.02546,2.80257
0.08651,-1.29052,3.52700
0.09069,-1.29052,3.52700
0.09462,-1.28716,3.51781
0.09702,-1.26412,3.45483
0.10111,-1.26412,3.45483
0.10521,-1.26412,3.45483
0.10874,-1.25769,3.43725
0.11224,-1.25132,3.41985
0.11513,-1.23877,3.38556
0.11944,-1.24189,3.39407
0.12377,-1.24501,3.40262
0.12781,-1.24501,3.40262
0.13184,-1.24501,3.40262
0.13553,-1.24189,3.39407
0.27486,-1.13625,3.10538
0.27854,-1.13625,3.10538
1.17525,-1.06524,2.91129
1.15384,-1.04276,2.84987
1.14994,-1.03621,2.83195
1.15329,-1.03621,2.83195
1.15908,-1.03838,2.83790
1.16244,-1.03838,2.83790
1.17568,-1.04718,2.86195
1.18409,-1.05164,2.87413
1.18246,-1.04718,2.86195
1.18335,-1.04497,2.85590
1.18673,-1.04497,2.85590
1.16067,-1.01911,2.78524
1.14974,-1.00666,2.75120
1.12774,-0.98460,2.69091
1.09178,-0.95052,2.59777
1.09276,-0.94870,2.59278
1.09373,-0.94688,2.58781
1.08639,-0.93789,2.56326
1.08943,-0.93789,2.56326
1.09246,-0.93789,2.56326
1.09550,-0.93789,2.56326
1.09854,-0.93789,2.56326
1.09328,-0.93083,2.54395
1.08810,-0.92387,2.52493
1.09313,-0.92560,2.52966
1.10232,-0.93083,2.54395
1.09913,-0.92560,2.52966
1.10212,-0.92560,2.52966
1.10512,-0.92560,2.52966
1.10605,-0.92387,2.52493
1.10904,-0.92387,2.52493
1.11203,-0.92387,2.52493
1.11502,-0.92387,2.52493
1.12221,-0.92734,2.53441
1.12733,-0.92908,2.53917
1.13246,-0.93083,2.54395
1.13548,-0.93083,2.54395
1.13635,-0.92908,2.53917
1.13722,-0.92734,2.53441
1.14023,-0.92734,2.53441
1.13896,-0.92387,2.52493
1.14195,-0.92387,2.52493
1.13855,-0.91872,2.51085
1.15008,-0.92560,2.52966
1.15308,-0.92560,2.52966
1.15607,-0.92560,2.52966
1.15691,-0.92387,2.52493
1.15990,-0.92387,2.52493
1.16289,-0.92387,2.52493
1.16371,-0.92215,2.52022
1.16452,-0.92043,2.51553
1.16317,-0.91701,2.50620
1.16830,-0.91872,2.51085
1.16694,-0.91532,2.50155
1.18084,-0.92387,2.52493
1.18827,-0.92734,2.53441
1.19128,-0.92734,2.53441
1.18981,-0.92387,2.52493
1.19281,-0.92387,2.52493
1.19580,-0.92387,2.52493
1.19879,-0.92387,2.52493
1.19286,-0.91701,2.50620
1.19141,-0.91362,2.49693
1.18778,-0.90859,2.48316
1.18854,-0.90692,2.47860
1.19367,-0.90859,2.48316
1.20547,-0.91532,2.50155
1.21068,-0.91701,2.50620
1.21140,-0.91532,2.50155
1.19446,-0.90031,2.46054
1.19520,-0.89867,2.45607
1.19811,-0.89867,2.45607
1.19884,-0.89704,2.45161
1.20174,-0.89704,2.45161
1.20465,-0.89704,2.45161
1.20755,-0.89704,2.45161
1.21266,-0.89867,2.45607
1.21336,-0.89704,2.45161
1.21627,-0.89704,2.45161
1.21917,-0.89704,2.45161
1.22653,-0.90031,2.46054
1.22944,-0.90031,2.46054
1.23236,-0.90031,2.46054
1.23527,-0.90031,2.46054
1.23819,-0.90031,2.46054
1.24337,-0.90195,2.46503
1.25086,-0.90526,2.47406
1.24921,-0.90195,2.46503
1.25213,-0.90195,2.46503
1.25505,-0.90195,2.46503
1.25797,-0.90195,2.46503
1.25631,-0.89867,2.45607
1.25239,-0.89380,2.44275
1.24851,-0.88898,2.42957
1.24914,-0.88738,2.42520
1.22993,-0.87173,2.38243
1.22198,-0.86411,2.36161
1.21627,-0.85811,2.34521
1.21694,-0.85662,2.34114
1.21971,-0.85662,2.34114
1.22249,-0.85662,2.34114
1.21683,-0.85072,2.32502
1.21332,-0.84635,2.31308
1.21191,-0.84347,2.30519
1.19426,-0.82931,2.26651
-1.47260,-1.01791,2.79099
-1.46325,-1.01372,2.77950
-1.45995,-1.01372,2.77950
-1.44182,-1.00340,2.75120
-1.43856,-1.00340,2.75120
-1.43530,-1.00340,2.75120
-1.43205,-1.00340,2.75120
-1.42879,-1.00340,2.75120
-1.42263,-1.00136,2.74561
-1.41077,-0.99529,2.72897
0.08696,-1.29310,3.54551
0.09092,-1.28971,3.53623
0.09487,-1.28634,3.52700
0.09702,-1.26003,3.45483
0.10085,-1.25681,3.44602
0.10494,-1.25681,3.44602
0.10874,-1.25361,3.43725
0.11282,-1.25361,3.43725
0.11659,-1.25043,3.42853
0.11974,-1.24098,3.40262
0.12377,-1.24098,3.40262
0.12781,-1.24098,3.40262
0.13250,-1.24727,3.41985
0.13553,-1.23786,3.39407
1.15533,-1.04379,2.86195
1.14418,-1.03069,2.82602
1.13097,-1.01581,2.78524
1.11813,-1.00136,2.74561
1.11010,-0.99129,2.71799
1.13154,-1.00751,2.76245
1.11879,-0.99329,2.72347
1.12202,-0.99329,2.72347
1.11625,-0.98534,2.70168
1.10399,-0.97174,2.66438
1.08155,-0.94927,2.60277
1.08047,-0.94562,2.59278
1.07940,-0.94201,2.58287
1.08453,-0.94381,2.58781
1.08969,-0.94562,2.59278
1.09066,-0.94381,2.58781
1.08335,-0.93486,2.56326
1.08228,-0.93132,2.55357
1.08531,-0.93132,2.55357
1.09246,-0.93486,2.56326
1.09550,-0.93486,2.56326
1.09026,-0.92782,2.54395
1.09328,-0.92782,2.54395
1.09629,-0.92782,2.54395
1.09931,-0.92782,2.54395
1.10232,-0.92782,2.54395
1.09913,-0.92260,2.52966
1.10212,-0.92260,2.52966
1.10100,-0.91916,2.52022
1.10398,-0.91916,2.52022
1.10904,-0.92088,2.52493
1.11203,-0.92088,2.52493
1.11711,-0.92260,2.52966
1.12221,-0.92433,2.53441
1.12733,-0.92607,2.53917
1.13246,-0.92782,2.54395
1.13548,-0.92782,2.54395
1.13635,-0.92607,2.53917
1.13936,-0.92607,2.53917
1.14237,-0.92607,2.53917
1.14538,-0.92607,2.53917
1.14839,-0.92607,2.53917
1.15140,-0.92607,2.53917
1.15658,-0.92782,2.54395
1.15959,-0.92782,2.54395
1.15824,-0.92433,2.53441
1.15907,-0.92260,2.52966
1.15990,-0.92088,2.52493
1.16072,-0.91916,2.52022
1.16154,-0.91745,2.51553
1.16020,-0.91404,2.50620
1.16101,-0.91235,2.50155
1.16398,-0.91235,2.50155
1.17128,-0.91574,2.51085
1.17864,-0.91916,2.52022
1.18162,-0.91916,2.52022
1.18682,-0.92088,2.52493
1.18981,-0.92088,2.52493
1.18836,-0.91745,2.51553
1.18692,-0.91404,2.50620
1.18989,-0.91404,2.50620
1.19286,-0.91404,2.50620
1.18702,-0.90731,2.48773
1.18778,-0.90564,2.48316
1.18854,-0.90398,2.47860
1.19367,-0.90564,2.48316
1.20547,-0.91235,2.50155
1.21068,-0.91404,2.50620
1.19372,-0.89903,2.46503
1.19446,-0.89740,2.46054
1.19956,-0.89903,2.46503
1.20248,-0.89903,2.46503
1.20540,-0.89903,2.46503
1.21053,-0.90068,2.46954
1.21346,-0.90068,2.46954
1.21861,-0.90233,2.47406
1.22154,-0.90233,2.47406
1.22223,-0.90068,2.46954
1.22516,-0.90068,2.46954
1.22361,-0.89740,2.46054
1.22653,-0.89740,2.46054
1.22944,-0.89740,2.46054
1.23236,-0.89740,2.46054
1.23303,-0.89576,2.45607
1.23819,-0.89740,2.46054
1.24111,-0.89740,2.46054
1.24402,-0.89740,2.46054
1.24467,-0.89576,2.45607
1.24758,-0.89576,2.45607
1.25049,-0.89576,2.45607
1.24886,-0.89252,2.44717
1.22730,-0.87508,2.39936
1.23014,-0.87508,2.39936
1.22862,-0.87198,2.39087
1.22711,-0.86891,2.38243
1.21918,-0.86131,2.36161
1.21985,-0.85981,2.35749
1.21417,-0.85385,2.34114
1.20235,-0.84361,2.31308
1.20924,-0.84651,2.32103
1.21407,-0.84797,2.32502
1.21892,-0.84943,2.32903
1.21749,-0.84651,2.32103
-1.47260,-1.01461,2.79099
-1.46929,-1.01461,2.79099
-1.45995,-1.01043,2.77950
-1.44477,-1.00218,2.75681
-1.44445,-1.00423,2.76245
-1.44118,-1.00423,2.76245
-1.44085,-1.00629,2.76811
-1.43757,-1.00629,2.76811
-1.42553,-1.00014,2.75120
-1.40793,-0.99006,2.72347
0.08742,-1.29570,3.56422
0.09140,-1.29229,3.55484
0.09511,-1.28552,3.53623
0.09802,-1.26891,3.49054
0.10085,-1.25273,3.44602
0.10494,-1.25273,3.44602
0.10847,-1.24637,3.42853
0.11310,-1.25273,3.44602
0.11659,-1.24637,3.42853
0.12065,-1.24637,3.42853
0.12440,-1.24321,3.41985
0.12845,-1.24321,3.41985
0.13184,-1.23695,3.40262
1.15289,-1.03820,2.85590
1.12767,-1.01251,2.78524
1.09267,-0.97823,2.69091
1.08935,-0.97241,2.67493
1.08606,-0.96667,2.65913
1.10223,-0.97823,2.69091
1.10103,-0.97434,2.68024
1.07853,-0.95168,2.61791
1.07746,-0.94801,2.60780
1.07432,-0.94255,2.59278
1.06919,-0.93537,2.57303
1.07224,-0.93537,2.57303
1.07529,-0.93537,2.57303
1.08039,-0.93716,2.57794
1.08760,-0.94075,2.58781
1.08650,-0.93716,2.57794
1.08748,-0.93537,2.57303
1.08228,-0.92830,2.55357
1.08122,-0.92480,2.54395
1.07814,-0.91961,2.52966
1.07912,-0.91789,2.52493
1.08009,-0.91617,2.52022
1.09534,-0.92655,2.54875
1.09836,-0.92655,2.54875
1.10138,-0.92655,2.54875
1.09613,-0.91961,2.52966
1.09298,-0.91447,2.51553
1.09801,-0.91617,2.52022
1.09487,-0.91107,2.50620
1.10398,-0.91617,2.52022
1.10491,-0.91447,2.51553
1.11203,-0.91789,2.52493
1.11711,-0.91961,2.52966
1.12644,-0.92480,2.54395
1.13372,-0.92830,2.55357
1.13460,-0.92655,2.54875
1.13548,-0.92480,2.54395
1.13849,-0.92480,2.54395
1.14582,-0.92830,2.55357
1.15540,-0.93359,2.56814
1.15187,-0.92830,2.55357
1.15490,-0.92830,2.55357
1.16232,-0.93182,2.56326
1.16536,-0.93182,2.56326
1.16839,-0.93182,2.56326
1.16261,-0.92480,2.54395
1.15907,-0.91961,2.52966
1.15773,-0.91617,2.52022
1.16072,-0.91617,2.52022
1.16154,-0.91447,2.51553
1.15805,-0.90939,2.50155
1.15887,-0.90771,2.49693
1.16398,-0.90939,2.50155
1.16694,-0.90939,2.50155
1.17864,-0.91617,2.52022
1.17723,-0.91277,2.51085
1.18021,-0.91277,2.51085
1.16798,-0.90104,2.47860
1.17092,-0.90104,2.47860
1.17818,-0.90436,2.48773
1.18113,-0.90436,2.48773
1.18408,-0.90436,2.48773
1.18267,-0.90104,2.47860
1.18560,-0.90104,2.47860
1.19073,-0.90270,2.48316
1.19367,-0.90270,2.48316
1.20103,-0.90603,2.49232
1.19955,-0.90270,2.48316
1.19372,-0.89611,2.46503
1.19446,-0.89448,2.46054
1.20175,-0.89775,2.46954
1.20468,-0.89775,2.46954
1.21204,-0.90104,2.47860
1.21053,-0.89775,2.46954
1.21568,-0.89939,2.47406
1.22085,-0.90104,2.47860
1.22603,-0.90270,2.48316
1.22672,-0.90104,2.47860
1.22740,-0.89939,2.47406
1.22361,-0.89448,2.46054
1.23101,-0.89775,2.46954
1.22944,-0.89448,2.46054
1.23236,-0.89448,2.46054
1.23079,-0.89123,2.45161
1.23370,-0.89123,2.45161
1.23660,-0.89123,2.45161
1.23951,-0.89123,2.45161
1.23124,-0.88322,2.42957
1.23412,-0.88322,2.42957
1.23700,-0.88322,2.42957
1.23543,-0.88005,2.42086
1.22513,-0.87069,2.39510
1.21504,-0.86153,2.36989
1.22429,-0.86608,2.38243
1.22711,-0.86608,2.38243
1.21918,-0.85851,2.36161
1.21561,-0.85403,2.34929
1.19348,-0.83657,2.30126
1.22314,-0.84960,2.33709
1.22591,-0.84960,2.33709
-1.46929,-1.01130,2.79099
-1.46598,-1.01130,2.79099
-1.45069,-1.00301,2.76811
-1.44741,-1.00301,2.76811
-1.44413,-1.00301,2.76811
-1.44085,-1.00301,2.76811
-1.43757,-1.00301,2.76811
-1.42553,-0.99688,2.75120
-1.38558,-0.97117,2.68024
0.08719,-1.28808,3.55484
0.09116,-1.28470,3.54551
0.09487,-1.27799,3.52700
0.09802,-1.26478,3.49054
0.10034,-1.24231,3.42853
0.10440,-1.24231,3.42853
0.10819,-1.23916,3.41985
0.11253,-1.24231,3.42853
0.11659,-1.24231,3.42853
0.12065,-1.24231,3.42853
0.12440,-1.23916,3.41985
0.12845,-1.23916,3.41985
0.13217,-1.23603,3.41121
0.13553,-1.22982,3.39407
1.12437,-1.00921,2.78524
1.08731,-0.97310,2.68556
1.07553,-0.95974,2.64870
1.07445,-0.95599,2.63836
1.07339,-0.95227,2.62809
1.06613,-0.94310,2.60277
1.06511,-0.93948,2.59278
1.06818,-0.93948,2.59278
1.06920,-0.93768,2.58781
1.07227,-0.93768,2.58781
1.06919,-0.93232,2.57303
1.07224,-0.93232,2.57303
1.07529,-0.93232,2.57303
1.08039,-0.93410,2.57794
1.08345,-0.93410,2.57794
1.08443,-0.93232,2.57303
1.08335,-0.92878,2.56326
1.07821,-0.92179,2.54395
1.07515,-0.91661,2.52966
1.07412,-0.91319,2.52022
1.07711,-0.91319,2.52022
1.07808,-0.91149,2.51553
1.09534,-0.92353,2.54875
1.10044,-0.92527,2.55357
1.10138,-0.92353,2.54875
1.09818,-0.91833,2.53441
1.09298,-0.91149,2.51553
1.09801,-0.91319,2.52022
1.10100,-0.91319,2.52022
1.10398,-0.91319,2.52022
1.10697,-0.91319,2.52022
1.11411,-0.91661,2.52966
1.11921,-0.91833,2.53441
1.13069,-0.92527,2.55357
1.14019,-0.93055,2.56814
1.14323,-0.93055,2.56814
1.13977,-0.92527,2.55357
1.14280,-0.92527,2.55357
1.15455,-0.93232,2.57303
1.15981,-0.93410,2.57794
1.16732,-0.93768,2.58781
1.17039,-0.93768,2.58781
1.16897,-0.93410,2.57794
1.16980,-0.93232,2.57303
1.17284,-0.93232,2.57303
1.17143,-0.92878,2.56326
1.15907,-0.91661,2.52966
1.15773,-0.91319,2.52022
1.16072,-0.91319,2.52022
1.16154,-0.91149,2.51553
1.16020,-0.90811,2.50620
1.16101,-0.90642,2.50155
1.16183,-0.90475,2.49693
1.16478,-0.90475,2.49693
1.16774,-0.90475,2.49693
1.16639,-0.90142,2.48773
1.16505,-0.89811,2.47860
1.16371,-0.89482,2.46954
1.17092,-0.89811,2.47860
1.17818,-0.90142,2.48773
1.18113,-0.90142,2.48773
1.17757,-0.89646,2.47406
1.18267,-0.89811,2.47860
1.18343,-0.89646,2.47406
1.19292,-0.90142,2.48773
1.19148,-0.89811,2.47860
1.19881,-0.90142,2.48773
1.19735,-0.89811,2.47860
1.19590,-0.89482,2.46954
1.19883,-0.89482,2.46954
1.20616,-0.89811,2.47860
1.20910,-0.89811,2.47860
1.21204,-0.89811,2.47860
1.21497,-0.89811,2.47860
1.21568,-0.89646,2.47406
1.21861,-0.89646,2.47406
1.22378,-0.89811,2.47860
1.22672,-0.89811,2.47860
1.22293,-0.89319,2.46503
1.21917,-0.88833,2.45161
1.22208,-0.88833,2.45161
1.22498,-0.88833,2.45161
1.22789,-0.88833,2.45161
1.22856,-0.88672,2.44717
1.23146,-0.88672,2.44717
1.21024,-0.86939,2.39936
1.20879,-0.86632,2.39087
1.20735,-0.86326,2.38243
1.21446,-0.86632,2.39087
1.21945,-0.86785,2.39510
1.22012,-0.86632,2.39087
1.21223,-0.85872,2.36989
1.20868,-0.85422,2.35749
-1.43757,-0.99973,2.76811
-1.40267,-0.97769,2.70709
-1.38010,-0.96417,2.66964
0.08696,-1.28049,3.54551
0.09116,-1.28049,3.54551
0.09511,-1.27714,3.53623
0.09802,-1.26064,3.49054
0.10034,-1.23824,3.42853
0.10440,-1.23824,3.42853
0.10792,-1.23199,3.41121
0.11253,-1.23824,3.42853
0.11659,-1.23824,3.42853
0.12065,-1.23824,3.42853
0.12440,-1.23511,3.41985
0.12845,-1.23511,3.41985
0.13217,-1.23199,3.41121
0.13553,-1.22580,3.39407
1.04656,-0.94183,2.60780
1.05372,-0.94548,2.61791
1.05682,-0.94548,2.61791
1.06820,-0.95287,2.63836
1.07133,-0.95287,2.63836
1.07236,-0.95101,2.63321
1.06304,-0.94002,2.60277
1.06204,-0.93641,2.59278
1.06511,-0.93641,2.59278
1.06613,-0.93461,2.58781
1.06920,-0.93461,2.58781
1.07022,-0.93283,2.58287
1.07123,-0.93105,2.57794
1.07224,-0.92927,2.57303
1.08147,-0.93461,2.58781
1.08039,-0.93105,2.57794
1.08345,-0.93105,2.57794
1.08443,-0.92927,2.57303
1.08335,-0.92575,2.56326
1.07416,-0.91533,2.53441
1.07314,-0.91190,2.52493
1.07613,-0.91190,2.52493
1.07912,-0.91190,2.52493
1.09232,-0.92051,2.54875
1.09741,-0.92225,2.55357
1.10882,-0.92927,2.57303
1.11187,-0.92927,2.57303
1.10649,-0.92225,2.55357
1.10951,-0.92225,2.55357
1.11044,-0.92051,2.54875
1.10927,-0.91705,2.53917
1.11228,-0.91705,2.53917
1.11111,-0.91361,2.52966
1.11830,-0.91705,2.53917
1.13195,-0.92575,2.56326
1.13714,-0.92751,2.56814
1.14454,-0.93105,2.57794
1.14759,-0.93105,2.57794
1.14845,-0.92927,2.57303
1.15150,-0.92927,2.57303
1.15676,-0.93105,2.57794
1.16649,-0.93641,2.59278
1.17407,-0.94002,2.60277
1.17715,-0.94002,2.60277
1.17570,-0.93641,2.59278
1.17878,-0.93641,2.59278
1.17508,-0.93105,2.57794
1.17589,-0.92927,2.57303
1.16562,-0.91877,2.54395
1.15773,-0.91020,2.52022
1.16072,-0.91020,2.52022
1.15723,-0.90514,2.50620
1.16020,-0.90514,2.50620
1.15887,-0.90179,2.49693
1.15755,-0.89847,2.48773
1.15624,-0.89517,2.47860
1.16344,-0.89847,2.48773
1.16211,-0.89517,2.47860
1.16719,-0.89682,2.48316
1.17013,-0.89682,2.48316
1.17740,-0.90013,2.49232
1.17818,-0.89847,2.48773
1.17464,-0.89353,2.47406
1.17757,-0.89353,2.47406
1.18267,-0.89517,2.47860
1.18778,-0.89682,2.48316
1.19292,-0.89847,2.48773
1.19148,-0.89517,2.47860
1.19661,-0.89682,2.48316
1.19516,-0.89353,2.47406
1.20249,-0.89682,2.48316
1.20323,-0.89517,2.47860
1.20838,-0.89682,2.48316
1.20910,-0.89517,2.47860
1.21204,-0.89517,2.47860
1.21053,-0.89190,2.46954
1.21346,-0.89190,2.46954
1.21638,-0.89190,2.46954
1.21931,-0.89190,2.46954
1.21778,-0.88865,2.46054
1.21848,-0.88703,2.45607
1.21917,-0.88542,2.45161
1.21766,-0.88222,2.44275
1.20745,-0.87275,2.41653
1.20815,-0.87119,2.41221
1.20029,-0.86348,2.39087
1.20100,-0.86196,2.38664
1.17884,-0.84406,2.33709
1.18160,-0.84406,2.33709
1.19055,-0.84847,2.34929
1.19334,-0.84847,2.34929
1.20030,-0.85143,2.35749
1.19890,-0.84847,2.34929
1.20378,-0.84994,2.35338
1.20447,-0.84847,2.34929
0.08673,-1.27295,3.53623
0.09092,-1.27295,3.53623
0.09511,-1.27295,3.53623
0.09802,-1.25651,3.49054
0.10034,-1.23418,3.42853
0.10414,-1.23106,3.41985
0.10765,-1.22486,3.40262
0.11253,-1.23418,3.42853
0.11659,-1.23418,3.42853
0.12065,-1.23418,3.42853
0.12440,-1.23106,3.41985
0.12845,-1.23106,3.41985
0.13217,-1.22795,3.41121
0.13553,-1.22178,3.39407
0.13920,-1.21872,3.38556
1.03330,-0.93513,2.59777
1.03837,-0.93693,2.60277
1.03746,-0.93334,2.59278
1.04454,-0.93693,2.60277
1.05168,-0.94056,2.61284
1.05682,-0.94238,2.61791
1.06198,-0.94421,2.62299
1.06509,-0.94421,2.62299
1.07027,-0.94605,2.62809
1.06304,-0.93693,2.60277
1.06613,-0.93693,2.60277
1.06511,-0.93334,2.59278
1.06818,-0.93334,2.59278
1.06920,-0.93155,2.58781
1.07022,-0.92977,2.58287
1.07328,-0.92977,2.58287
1.07840,-0.93155,2.58781
1.08354,-0.93334,2.59278
1.08039,-0.92799,2.57794
1.08345,-0.92799,2.57794
1.08443,-0.92622,2.57303
1.08748,-0.92622,2.57303
1.08639,-0.92271,2.56326
1.09986,-0.93155,2.58781
1.10717,-0.93513,2.59777
1.09550,-0.92271,2.56326
1.09854,-0.92271,2.56326
1.10577,-0.92622,2.57303
1.10882,-0.92622,2.57303
1.11187,-0.92622,2.57303
1.11492,-0.92622,2.57303
1.11372,-0.92271,2.56326
1.11254,-0.91922,2.55357
1.11980,-0.92271,2.56326
1.12284,-0.92271,2.56326
1.12801,-0.92446,2.56814
1.13537,-0.92799,2.57794
1.13843,-0.92799,2.57794
1.14367,-0.92977,2.58287
1.15334,-0.93513,2.59777
1.14979,-0.92977,2.58287
1.15065,-0.92799,2.57794
1.15370,-0.92799,2.57794
1.16342,-0.93334,2.59278
1.16649,-0.93334,2.59278
1.17407,-0.93693,2.60277
1.17715,-0.93693,2.60277
1.18024,-0.93693,2.60277
1.17878,-0.93334,2.59278
1.17508,-0.92799,2.57794
1.17143,-0.92271,2.56326
1.15475,-0.90722,2.52022
1.14916,-0.90050,2.50155
1.15212,-0.90050,2.50155
1.15509,-0.90050,2.50155
1.14743,-0.89223,2.47860
1.15036,-0.89223,2.47860
1.15330,-0.89223,2.47860
1.15624,-0.89223,2.47860
1.15917,-0.89223,2.47860
1.16211,-0.89223,2.47860
1.16719,-0.89387,2.48316
1.17445,-0.89717,2.49232
1.17740,-0.89717,2.49232
1.17386,-0.89223,2.47860
1.17464,-0.89060,2.47406
1.17757,-0.89060,2.47406
1.18267,-0.89223,2.47860
1.18778,-0.89387,2.48316
1.19292,-0.89552,2.48773
1.19148,-0.89223,2.47860
1.19441,-0.89223,2.47860
1.19516,-0.89060,2.47406
1.19809,-0.89060,2.47406
1.20544,-0.89387,2.48316
1.20838,-0.89387,2.48316
1.20910,-0.89223,2.47860
1.21204,-0.89223,2.47860
1.21053,-0.88897,2.46954
1.21346,-0.88897,2.46954
1.21195,-0.88573,2.46054
1.21266,-0.88412,2.45607
1.21336,-0.88252,2.45161
1.21627,-0.88252,2.45161
1.20172,-0.86989,2.41653
1.19180,-0.86065,2.39087
1.18832,-0.85611,2.37824
1.18904,-0.85460,2.37406
1.18354,-0.84863,2.35749
1.17404,-0.83984,2.33306
1.17477,-0.83839,2.32903
1.17956,-0.83984,2.33306
1.18437,-0.84129,2.33709
1.18920,-0.84275,2.34114
1.19404,-0.84421,2.34521
1.19890,-0.84568,2.34929
1.20378,-0.84716,2.35338
0.08628,-1.26215,3.51781
0.09069,-1.26545,3.52700
0.09487,-1.26545,3.52700
0.09802,-1.25237,3.49054
0.10060,-1.23325,3.43725
0.10388,-1.22391,3.41121
0.10765,-1.22082,3.40262
0.11196,-1.22391,3.41121
0.11630,-1.22701,3.41985
0.12065,-1.23012,3.42853
0.12472,-1.23012,3.42853
0.12845,-1.22701,3.41985
0.13217,-1.22391,3.41121
0.13587,-1.22082,3.40262
0.13955,-1.21776,3.39407
0.14357,-1.21776,3.39407
0.14722,-1.21470,3.38556
0.15123,-1.21470,3.38556
1.04471,-0.97128,2.70709
1.16461,-1.07944,3.00855
1.16817,-1.07944,3.00855
1.17174,-1.07944,3.00855
1.02099,-0.93205,2.59777
1.02604,-0.93385,2.60277
1.02714,-0.93205,2.59777
1.02824,-0.93026,2.59278
1.03131,-0.93026,2.59278
1.03439,-0.93026,2.59278
1.03547,-0.92848,2.58781
1.04454,-0.93385,2.60277
1.04965,-0.93565,2.60780
1.05477,-0.93746,2.61284
1.05787,-0.93746,2.61284
1.06097,-0.93746,2.61284
1.06201,-0.93565,2.60780
1.06304,-0.93385,2.60277
1.06613,-0.93385,2.60277
1.06921,-0.93385,2.60277
1.06818,-0.93026,2.59278
1.06920,-0.92848,2.58781
1.07022,-0.92671,2.58287
1.07123,-0.92494,2.57794
1.07224,-0.92318,2.57303
1.07734,-0.92494,2.57794
1.08039,-0.92494,2.57794
1.10238,-0.94110,2.62299
1.10335,-0.93928,2.61791
1.09373,-0.92848,2.58781
1.10101,-0.93205,2.59777
1.17409,-0.99114,2.76245
1.18219,-0.99521,2.77380
1.18063,-0.99114,2.76245
1.12196,-0.93928,2.61791
1.10577,-0.92318,2.57303
1.10882,-0.92318,2.57303
1.11187,-0.92318,2.57303
1.11705,-0.92494,2.57794
1.12010,-0.92494,2.57794
1.12530,-0.92671,2.58287
1.13053,-0.92848,2.58781
1.13359,-0.92848,2.58781
1.13448,-0.92671,2.58287
1.13972,-0.92848,2.58781
1.14279,-0.92848,2.58781
1.15026,-0.93205,2.59777
1.15556,-0.93385,2.60277
1.15642,-0.93205,2.59777
1.15065,-0.92494,2.57794
1.16034,-0.93026,2.59278
1.16342,-0.93026,2.59278
1.16649,-0.93026,2.59278
1.17407,-0.93385,2.60277
1.17715,-0.93385,2.60277
1.17797,-0.93205,2.59777
1.17203,-0.92494,2.57794
1.16398,-0.91619,2.55357
1.15176,-0.90423,2.52022
1.15045,-0.90087,2.51085
1.14916,-0.89753,2.50155
1.15212,-0.89753,2.50155
1.14870,-0.89257,2.48773
1.14743,-0.88930,2.47860
1.15036,-0.88930,2.47860
1.15330,-0.88930,2.47860
1.15836,-0.89093,2.48316
1.16130,-0.89093,2.48316
1.16425,-0.89093,2.48316
1.16934,-0.89257,2.48773
1.17229,-0.89257,2.48773
1.17307,-0.89093,2.48316
1.17386,-0.88930,2.47860
1.17464,-0.88767,2.47406
1.17973,-0.88930,2.47860
1.18267,-0.88930,2.47860
1.18778,-0.89093,2.48316
1.19292,-0.89257,2.48773
1.19367,-0.89093,2.48316
1.19441,-0.88930,2.47860
1.19516,-0.88767,2.47406
1.19590,-0.88605,2.46954
1.19883,-0.88605,2.46954
1.20838,-0.89093,2.48316
1.20248,-0.88443,2.46503
1.19884,-0.87961,2.45161
1.20174,-0.87961,2.45161
1.20904,-0.88282,2.46054
1.20755,-0.87961,2.45161
1.20608,-0.87643,2.44275
1.20029,-0.87014,2.42520
1.19886,-0.86703,2.41653
1.18896,-0.85782,2.39087
1.18550,-0.85329,2.37824
1.18001,-0.84732,2.36161
1.17664,-0.84290,2.34929
1.16925,-0.83563,2.32903
1.17404,-0.83708,2.33306
1.17275,-0.83419,2.32502
1.18160,-0.83852,2.33709
1.18643,-0.83998,2.34114
1.18920,-0.83998,2.34114
1.19197,-0.83998,2.34114
1.19682,-0.84144,2.34521
1.20378,-0.84437,2.35338
0.08561,-1.24823,3.49054
0.08975,-1.24823,3.49054
0.09487,-1.26127,3.52700
0.09802,-1.24823,3.49054
0.10111,-1.23546,3.45483
0.10388,-1.21986,3.41121
0.10765,-1.21679,3.40262
0.11196,-1.21986,3.41121
0.11630,-1.22295,3.41985
0.12065,-1.22606,3.42853
0.12440,-1.22295,3.41985
0.12878,-1.22606,3.42853
0.13250,-1.22295,3.41985
0.13621,-1.21986,3.41121
0.13955,-1.21373,3.39407
0.14357,-1.21373,3.39407
0.14759,-1.21373,3.39407
0.15161,-1.21373,3.39407
0.99752,-0.92719,2.59278
1.02418,-0.94905,2.65391
1.04373,-0.96420,2.69629
1.03658,-0.95468,2.66964
1.02756,-0.94349,2.63836
1.01679,-0.93076,2.60277
1.01401,-0.92541,2.58781
1.02099,-0.92897,2.59777
1.02604,-0.93076,2.60277
1.02912,-0.93076,2.60277
1.03220,-0.93076,2.60277
1.03330,-0.92897,2.59777
1.03638,-0.92897,2.59777
1.03945,-0.92897,2.59777
1.04454,-0.93076,2.60277
1.05168,-0.93436,2.61284
1.05477,-0.93436,2.61284
1.05583,-0.93256,2.60780
1.05484,-0.92897,2.59777
1.05792,-0.92897,2.59777
1.06100,-0.92897,2.59777
1.06613,-0.93076,2.60277
1.07335,-0.93436,2.61284
1.07437,-0.93256,2.60780
1.06920,-0.92541,2.58781
1.06817,-0.92188,2.57794
1.06919,-0.92013,2.57303
1.07020,-0.91838,2.56814
1.07529,-0.92013,2.57303
1.08246,-0.92365,2.58287
1.11757,-0.95092,2.65913
1.12293,-0.95279,2.66438
1.12387,-0.95092,2.65913
1.17562,-0.99192,2.77380
1.17891,-0.99192,2.77380
1.18219,-0.99192,2.77380
1.18063,-0.98787,2.76245
1.12196,-0.93618,2.61791
1.10788,-0.92188,2.57794
1.10882,-0.92013,2.57303
1.11187,-0.92013,2.57303
1.11705,-0.92188,2.57794
1.12010,-0.92188,2.57794
1.12530,-0.92365,2.58287
1.13053,-0.92541,2.58781
1.13359,-0.92541,2.58781
1.13884,-0.92719,2.59278
1.14191,-0.92719,2.59278
1.14498,-0.92719,2.59278
1.15026,-0.92897,2.59777
1.15556,-0.93076,2.60277
1.15642,-0.92897,2.59777
1.15065,-0.92188,2.57794
1.15370,-0.92188,2.57794
1.15676,-0.92188,2.57794
1.15981,-0.92188,2.57794
1.16065,-0.92013,2.57303
1.14623,-0.90632,2.53441
1.14494,-0.90293,2.52493
1.14366,-0.89957,2.51553
1.14664,-0.89957,2.51553
1.14748,-0.89789,2.51085
1.15045,-0.89789,2.51085
1.14916,-0.89457,2.50155
1.15212,-0.89457,2.50155
1.15295,-0.89291,2.49693
1.15591,-0.89291,2.49693
1.15460,-0.88963,2.48773
1.15755,-0.88963,2.48773
1.16049,-0.88963,2.48773
1.16344,-0.88963,2.48773
1.16639,-0.88963,2.48773
1.16934,-0.88963,2.48773
1.17229,-0.88963,2.48773
1.17307,-0.88799,2.48316
1.17386,-0.88636,2.47860
1.17679,-0.88636,2.47860
1.17973,-0.88636,2.47860
1.18267,-0.88636,2.47860
1.18560,-0.88636,2.47860
1.19292,-0.88963,2.48773
1.19367,-0.88799,2.48316
1.19441,-0.88636,2.47860
1.19297,-0.88312,2.46954
1.19372,-0.88151,2.46503
1.19664,-0.88151,2.46503
1.19956,-0.88151,2.46503
1.20248,-0.88151,2.46503
1.19884,-0.87671,2.45161
1.20174,-0.87671,2.45161
1.20465,-0.87671,2.45161
1.20755,-0.87671,2.45161
1.19957,-0.86882,2.42957
1.19600,-0.86416,2.41653
1.18613,-0.85498,2.39087
1.17647,-0.84600,2.36574
1.17721,-0.84452,2.36161
1.17385,-0.84012,2.34929
1.17256,-0.83720,2.34114
1.16925,-0.83287,2.32903
1.17201,-0.83287,2.32903
0.08452,-1.22823,3.44602
0.08952,-1.24089,3.48154
0.09437,-1.25056,3.50867
0.09853,-1.25056,3.50867
0.10111,-1.23137,3.45483
0.10362,-1.21276,3.40262
0.10765,-1.21276,3.40262
0.11224,-1.21890,3.41985
0.11630,-1.21890,3.41985
0.12065,-1.22199,3.42853
0.12472,-1.22199,3.42853
0.12878,-1.22199,3.42853
0.13250,-1.21890,3.41985
0.13621,-1.21582,3.41121
0.14025,-1.21582,3.41121
0.14430,-1.21582,3.41121
0.14834,-1.21582,3.41121
1.06717,-1.03988,2.91758
1.06832,-1.03764,2.91129
1.05809,-1.02440,2.87413
1.04811,-1.01148,2.83790
1.05147,-1.01148,2.83790
1.04171,-0.99889,2.80257
1.04503,-0.99889,2.80257
1.06156,-1.01148,2.83790
0.99636,-0.92590,2.59777
0.99181,-0.91883,2.57794
1.00059,-0.92412,2.59278
1.00753,-0.92768,2.60277
1.01847,-0.93489,2.62299
1.01566,-0.92947,2.60780
1.01875,-0.92947,2.60780
1.01595,-0.92412,2.59278
1.02099,-0.92590,2.59777
1.02406,-0.92590,2.59777
1.02912,-0.92768,2.60277
1.03220,-0.92768,2.60277
1.03131,-0.92412,2.59278
1.03439,-0.92412,2.59278
1.03746,-0.92412,2.59278
1.04656,-0.92947,2.60780
1.04965,-0.92947,2.60780
1.05274,-0.92947,2.60780
1.05379,-0.92768,2.60277
1.05282,-0.92412,2.59278
1.04387,-0.91360,2.56326
1.04691,-0.91360,2.56326
1.04994,-0.91360,2.56326
1.06921,-0.92768,2.60277
1.06818,-0.92412,2.59278
1.06512,-0.91883,2.57794
1.06614,-0.91708,2.57303
1.06110,-0.91014,2.55357
1.06413,-0.91014,2.55357
1.07324,-0.91533,2.56814
1.08661,-0.92412,2.59278
1.13093,-0.95910,2.69091
1.13865,-0.96293,2.70168
1.17475,-0.99067,2.77950
1.17804,-0.99067,2.77950
1.18133,-0.99067,2.77950
1.18219,-0.98864,2.77380
1.13424,-0.94591,2.65391
1.12196,-0.93307,2.61791
1.11426,-0.92412,2.59278
1.11733,-0.92412,2.59278
1.11612,-0.92059,2.58287
1.11705,-0.91883,2.57794
1.12010,-0.91883,2.57794
1.12530,-0.92059,2.58287
1.13053,-0.92235,2.58781
1.13577,-0.92412,2.59278
1.13884,-0.92412,2.59278
1.14191,-0.92412,2.59278
1.14279,-0.92235,2.58781
1.15026,-0.92590,2.59777
1.15556,-0.92768,2.60277
1.15642,-0.92590,2.59777
1.14845,-0.91708,2.57303
1.14280,-0.91014,2.55357
1.14366,-0.90843,2.54875
1.14452,-0.90672,2.54395
1.14109,-0.90162,2.52966
1.14195,-0.89994,2.52493
1.13855,-0.89492,2.51085
1.14153,-0.89492,2.51085
1.14450,-0.89492,2.51085
1.14748,-0.89492,2.51085
1.15045,-0.89492,2.51085
1.15129,-0.89326,2.50620
1.15426,-0.89326,2.50620
1.15509,-0.89160,2.50155
1.15805,-0.89160,2.50155
1.15887,-0.88996,2.49693
1.15968,-0.88831,2.49232
1.16049,-0.88668,2.48773
1.16344,-0.88668,2.48773
1.16639,-0.88668,2.48773
1.16934,-0.88668,2.48773
1.17229,-0.88668,2.48773
1.17523,-0.88668,2.48773
1.17601,-0.88505,2.48316
1.17896,-0.88505,2.48316
1.18626,-0.88831,2.49232
1.19141,-0.88996,2.49693
1.18997,-0.88668,2.48773
1.19292,-0.88668,2.48773
1.19587,-0.88668,2.48773
1.19223,-0.88181,2.47406
1.18863,-0.87699,2.46054
1.18722,-0.87380,2.45161
1.19012,-0.87380,2.45161
1.19303,-0.87380,2.45161
1.19593,-0.87380,2.45161
1.19884,-0.87380,2.45161
1.19957,-0.87222,2.44717
1.20247,-0.87222,2.44717
1.19669,-0.86595,2.42957
1.19957,-0.86595,2.42957
1.19600,-0.86130,2.41653
1.18613,-0.85215,2.39087
1.17647,-0.84320,2.36574
1.17927,-0.84320,2.36574
1.17795,-0.84025,2.35749
1.17459,-0.83588,2.34521
-1.39451,-0.98535,2.77380
0.08431,-1.22103,3.43725
0.08906,-1.23042,3.46369
0.09389,-1.23996,3.49054
0.09802,-1.23996,3.49054
0.10111,-1.22728,3.45483
0.10467,-1.22103,3.43725
0.10765,-1.20873,3.40262
0.11282,-1.22103,3.43725
0.11719,-1.22415,3.44602
0.12127,-1.22415,3.44602
0.12535,-1.22415,3.44602
0.12878,-1.21793,3.42853
0.13250,-1.21485,3.41985
0.13656,-1.21485,3.41985
0.14025,-1.21178,3.41121
0.14466,-1.21485,3.41985
0.14871,-1.21485,3.41985
1.06487,-1.03419,2.91129
1.06146,-1.02755,2.89259
1.04475,-1.00812,2.83790
1.04591,-1.00601,2.83195
1.03839,-0.99557,2.80257
1.02053,-0.97534,2.74561
0.99941,-0.95211,2.68024
0.99665,-0.94648,2.66438
1.00217,-0.94276,2.65391
1.00532,-0.94276,2.65391
1.00648,-0.94091,2.64870
1.00372,-0.93541,2.63321
1.00488,-0.93359,2.62809
1.00214,-0.92817,2.61284
0.99752,-0.92105,2.59278
1.00833,-0.92817,2.61284
1.01143,-0.92817,2.61284
1.01453,-0.92817,2.61284
1.01762,-0.92817,2.61284
1.02072,-0.92817,2.61284
1.02184,-0.92638,2.60780
1.02295,-0.92460,2.60277
1.02604,-0.92460,2.60277
1.02912,-0.92460,2.60277
1.03620,-0.92817,2.61284
1.03529,-0.92460,2.60277
1.04038,-0.92638,2.60780
1.03945,-0.92282,2.59777
1.04656,-0.92638,2.60780
1.04965,-0.92638,2.60780
1.05071,-0.92460,2.60277
1.04975,-0.92105,2.59278
1.04281,-0.91229,2.56814
1.03992,-0.90712,2.55357
1.03512,-0.90031,2.53441
1.03231,-0.89527,2.52022
1.03918,-0.89862,2.52966
1.04218,-0.89862,2.52966
1.05705,-0.90884,2.55841
1.06008,-0.90884,2.55841
1.05910,-0.90541,2.54875
1.06012,-0.90370,2.54395
1.06715,-0.90712,2.55357
1.08661,-0.92105,2.59278
1.14461,-0.96747,2.72347
1.15952,-0.97732,2.75120
1.17234,-0.98535,2.77380
1.17562,-0.98535,2.77380
1.17891,-0.98535,2.77380
1.15377,-0.96165,2.70709
1.12980,-0.93907,2.64352
1.11119,-0.92105,2.59278
1.11426,-0.92105,2.59278
1.11733,-0.92105,2.59278
1.12041,-0.92105,2.59278
1.11705,-0.91577,2.57794
1.12010,-0.91577,2.57794
1.12530,-0.91752,2.58287
1.13053,-0.91928,2.58781
1.13142,-0.91752,2.58287
1.13884,-0.92105,2.59278
1.13537,-0.91577,2.57794
1.13843,-0.91577,2.57794
1.14148,-0.91577,2.57794
1.14236,-0.91403,2.57303
1.13675,-0.90712,2.55357
1.12910,-0.89862,2.52966
1.13210,-0.89862,2.52966
1.13297,-0.89694,2.52493
1.13596,-0.89694,2.52493
1.13896,-0.89694,2.52493
1.13558,-0.89194,2.51085
1.13855,-0.89194,2.51085
1.14153,-0.89194,2.51085
1.14450,-0.89194,2.51085
1.14748,-0.89194,2.51085
1.15045,-0.89194,2.51085
1.15343,-0.89194,2.51085
1.15640,-0.89194,2.51085
1.15723,-0.89029,2.50620
1.16020,-0.89029,2.50620
1.16101,-0.88864,2.50155
1.15968,-0.88536,2.49232
1.16049,-0.88373,2.48773
1.16344,-0.88373,2.48773
1.16639,-0.88373,2.48773
1.16934,-0.88373,2.48773
1.17662,-0.88700,2.49693
1.18395,-0.89029,2.50620
1.18913,-0.89194,2.51085
1.19211,-0.89194,2.51085
1.19286,-0.89029,2.50620
1.19362,-0.88864,2.50155
1.19217,-0.88536,2.49232
1.19292,-0.88373,2.48773
1.19148,-0.88049,2.47860
1.19223,-0.87887,2.47406
1.18863,-0.87407,2.46054
1.18507,-0.86932,2.44717
1.18797,-0.86932,2.44717
1.19087,-0.86932,2.44717
1.20248,-0.87567,2.46503
1.19884,-0.87090,2.45161
1.19957,-0.86932,2.44717
1.20029,-0.86775,2.44275
1.19885,-0.86462,2.43394
1.19957,-0.86307,2.42957
1.20029,-0.86152,2.42520
1.19886,-0.85844,2.41653
1.18477,-0.84632,2.38243
1.17927,-0.84039,2.36574
1.18208,-0.84039,2.36574
-1.39743,-0.96815,2.73449
-1.38577,-0.96230,2.71799
-1.39250,-0.97605,2.75681
-1.38924,-0.97605,2.75681
-1.38597,-0.97605,2.75681
-1.38270,-0.97605,2.75681
0.08517,-1.22947,3.47259
0.08975,-1.23583,3.49054
0.09389,-1.23583,3.49054
0.09727,-1.22632,3.46369
0.10111,-1.22318,3.45483
0.10467,-1.21696,3.43725
0.10874,-1.21696,3.43725
0.11310,-1.22006,3.44602
0.11870,-1.23583,3.49054
0.12284,-1.23583,3.49054
0.12535,-1.22006,3.44602
0.12878,-1.21387,3.42853
0.13250,-1.21080,3.41985
0.13690,-1.21387,3.42853
0.14097,-1.21387,3.42853
0.14503,-1.21387,3.42853
0.14871,-1.21080,3.41985
0.15200,-1.20470,3.40262
1.05460,-1.02412,2.89259
1.05803,-1.02412,2.89259
1.05919,-1.02193,2.88641
1.04475,-1.00476,2.83790
1.03292,-0.99020,2.79677
1.00502,-0.96037,2.71253
0.99034,-0.94332,2.66438
0.99350,-0.94332,2.66438
0.99665,-0.94332,2.66438
0.99393,-0.93777,2.64870
0.99903,-0.93962,2.65391
1.00217,-0.93962,2.65391
1.00334,-0.93777,2.64870
1.00846,-0.93962,2.65391
1.00372,-0.93229,2.63321
1.00293,-0.92867,2.62299
1.00214,-0.92508,2.61284
1.00137,-0.92151,2.60277
1.00639,-0.92329,2.60780
1.00948,-0.92329,2.60780
1.01453,-0.92508,2.61284
1.01762,-0.92508,2.61284
1.02072,-0.92508,2.61284
1.02184,-0.92329,2.60780
1.02295,-0.92151,2.60277
1.02604,-0.92151,2.60277
1.02321,-0.91622,2.58781
1.02627,-0.91622,2.58781
1.02737,-0.91446,2.58287
1.03439,-0.91797,2.59278
1.03746,-0.91797,2.59278
1.04454,-0.92151,2.60277
1.04762,-0.92151,2.60277
1.04068,-0.91272,2.57794
1.03387,-0.90409,2.55357
1.02527,-0.89395,2.52493
1.02443,-0.89062,2.51553
1.02550,-0.88897,2.51085
1.02277,-0.88404,2.49693
1.02573,-0.88404,2.49693
1.02869,-0.88404,2.49693
1.03740,-0.88897,2.51085
1.05211,-0.89899,2.53917
1.05711,-0.90069,2.54395
1.06012,-0.90069,2.54395
1.06715,-0.90409,2.55357
1.08453,-0.91622,2.58781
1.14461,-0.96424,2.72347
1.14784,-0.96424,2.72347
1.15106,-0.96424,2.72347
1.15662,-0.96619,2.72897
1.15056,-0.95845,2.70709
1.12667,-0.93594,2.64352
1.11239,-0.92151,2.60277
1.10483,-0.91272,2.57794
1.11426,-0.91797,2.59278
1.13035,-0.92867,2.62299
1.12041,-0.91797,2.59278
1.11705,-0.91272,2.57794
1.12010,-0.91272,2.57794
1.12316,-0.91272,2.57794
1.12836,-0.91446,2.58287
1.13142,-0.91446,2.58287
1.12162,-0.90409,2.55357
1.10995,-0.89229,2.52022
1.11502,-0.89395,2.52493
1.11801,-0.89395,2.52493
1.12100,-0.89395,2.52493
1.12610,-0.89563,2.52966
1.12699,-0.89395,2.52493
1.12998,-0.89395,2.52493
1.13297,-0.89395,2.52493
1.13596,-0.89395,2.52493
1.13896,-0.89395,2.52493
1.13558,-0.88897,2.51085
1.13855,-0.88897,2.51085
1.14153,-0.88897,2.51085
1.14664,-0.89062,2.51553
1.14962,-0.89062,2.51553
1.14832,-0.88732,2.50620
1.14916,-0.88568,2.50155
1.15640,-0.88897,2.51085
1.15723,-0.88732,2.50620
1.16020,-0.88732,2.50620
1.16101,-0.88568,2.50155
1.15968,-0.88241,2.49232
1.15624,-0.87755,2.47860
1.15917,-0.87755,2.47860
1.16639,-0.88078,2.48773
1.17150,-0.88241,2.49232
1.17662,-0.88404,2.49693
1.18836,-0.89062,2.51553
1.18913,-0.88897,2.51085
1.19433,-0.89062,2.51553
1.19508,-0.88897,2.51085
1.19583,-0.88732,2.50620
1.18997,-0.88078,2.48773
1.19292,-0.88078,2.48773
1.19587,-0.88078,2.48773
1.19881,-0.88078,2.48773
1.18863,-0.87116,2.46054
1.18722,-0.86799,2.45161
1.18797,-0.86642,2.44717
1.19087,-0.86642,2.44717
1.19593,-0.86799,2.45161
1.19020,-0.86174,2.43394
1.19740,-0.86485,2.44275
1.19381,-0.86019,2.42957
1.19669,-0.86019,2.42957
1.19957,-0.86019,2.42957
1.19814,-0.85711,2.42086
1.20101,-0.85711,2.42086
1.19107,-0.84799,2.39510
1.19391,-0.84799,2.39510
-1.40026,-0.96686,2.74004
-1.39419,-0.96491,2.73449
-1.38255,-0.95908,2.71799
-1.39052,-0.96686,2.74004
-1.38447,-0.96491,2.73449
-1.38967,-0.97080,2.75120
-1.38641,-0.97080,2.75120
-1.38315,-0.97080,2.75120
-1.37989,-0.97080,2.75120
0.08561,-1.23169,3.49054
0.09022,-1.23809,3.50867
0.09389,-1.23169,3.49054
0.09727,-1.22222,3.46369
0.10111,-1.21909,3.45483
0.10494,-1.21598,3.44602
0.10902,-1.21598,3.44602
0.11456,-1.23169,3.49054
0.11870,-1.23169,3.49054
0.12315,-1.23488,3.49958
0.12600,-1.22222,3.46369
0.12911,-1.21289,3.43725
0.13318,-1.21289,3.43725
0.13760,-1.21598,3.44602
0.14241,-1.22222,3.46369
0.14652,-1.22222,3.46369
0.14871,-1.20674,3.41985
0.15200,-1.20067,3.40262
1.01304,-0.98688,2.79677
1.03130,-1.00140,2.83790
1.03466,-1.00140,2.83790
1.05577,-1.01851,2.88641
1.03486,-0.99512,2.82012
1.02961,-0.98688,2.79677
0.99383,-0.94953,2.69091
0.97946,-0.93281,2.64352
0.98259,-0.93281,2.64352
0.98572,-0.93281,2.64352
0.99079,-0.93464,2.64870
0.99393,-0.93464,2.64870
0.99707,-0.93464,2.64870
0.99630,-0.93098,2.63836
0.99943,-0.93098,2.63836
1.00255,-0.93098,2.63836
1.00372,-0.92917,2.63321
1.00684,-0.92917,2.63321
1.00996,-0.92917,2.63321
1.00524,-0.92198,2.61284
1.00445,-0.91843,2.60277
1.00948,-0.92020,2.60780
1.01453,-0.92198,2.61284
1.01762,-0.92198,2.61284
1.00901,-0.91140,2.58287
1.01207,-0.91140,2.58287
1.01513,-0.91140,2.58287
1.01819,-0.91140,2.58287
1.02125,-0.91140,2.58287
1.01654,-0.90449,2.56326
1.02541,-0.90966,2.57794
1.02846,-0.90966,2.57794
1.03349,-0.91140,2.58287
1.03457,-0.90966,2.57794
1.03565,-0.90793,2.57303
1.02696,-0.89767,2.54395
1.02998,-0.89767,2.54395
1.02145,-0.88764,2.51553
1.01874,-0.88271,2.50155
1.02170,-0.88271,2.50155
1.02277,-0.88108,2.49693
1.02573,-0.88108,2.49693
1.02869,-0.88108,2.49693
1.03740,-0.88599,2.51085
1.04038,-0.88599,2.51085
1.04725,-0.88930,2.52022
1.05813,-0.89599,2.53917
1.07529,-0.90793,2.57303
1.11005,-0.93464,2.64870
1.11319,-0.93464,2.64870
1.11633,-0.93464,2.64870
1.12609,-0.94017,2.66438
1.12925,-0.94017,2.66438
1.12354,-0.93281,2.64352
1.10930,-0.91843,2.60277
1.09968,-0.90793,2.57303
1.09854,-0.90449,2.56326
1.10158,-0.90449,2.56326
1.11519,-0.91315,2.58781
1.11399,-0.90966,2.57794
1.10440,-0.89937,2.54875
1.10534,-0.89767,2.54395
1.10419,-0.89430,2.53441
1.10305,-0.89096,2.52493
1.10193,-0.88764,2.51553
1.10491,-0.88764,2.51553
1.10789,-0.88764,2.51553
1.11294,-0.88930,2.52022
1.11801,-0.89096,2.52493
1.12100,-0.89096,2.52493
1.12821,-0.89430,2.53441
1.12699,-0.89096,2.52493
1.12998,-0.89096,2.52493
1.13086,-0.88930,2.52022
1.13596,-0.89096,2.52493
1.13260,-0.88599,2.51085
1.13558,-0.88599,2.51085
1.13644,-0.88435,2.50620
1.14153,-0.88599,2.51085
1.14238,-0.88435,2.50620
1.14323,-0.88271,2.50155
1.14619,-0.88271,2.50155
1.14916,-0.88271,2.50155
1.15212,-0.88271,2.50155
1.15723,-0.88435,2.50620
1.16020,-0.88435,2.50620
1.15673,-0.87945,2.49232
1.15330,-0.87461,2.47860
1.15412,-0.87301,2.47406
1.15705,-0.87301,2.47406
1.16639,-0.87783,2.48773
1.16934,-0.87783,2.48773
1.17229,-0.87783,2.48773
1.17740,-0.87945,2.49232
1.18473,-0.88271,2.50155
1.19211,-0.88599,2.51085
1.19065,-0.88271,2.50155
1.19141,-0.88108,2.49693
1.18343,-0.87301,2.47406
1.19512,-0.87945,2.49232
1.20029,-0.88108,2.49693
1.20325,-0.88108,2.49693
1.20176,-0.87783,2.48773
1.18305,-0.85577,2.42520
1.18592,-0.85577,2.42520
1.18880,-0.85577,2.42520
1.19167,-0.85577,2.42520
1.19669,-0.85731,2.42957
1.19957,-0.85731,2.42957
1.20029,-0.85577,2.42520
1.20317,-0.85577,2.42520
1.19958,-0.85119,2.41221
-1.40311,-0.96558,2.74561
-1.39137,-0.95972,2.72897
-1.38255,-0.95586,2.71799
-1.38211,-0.95779,2.72347
-1.38447,-0.96167,2.73449
-1.38684,-0.96558,2.74561
-1.37799,-0.96167,2.73449
-1.38315,-0.96754,2.75120
0.08584,-1.23073,3.49958
0.09022,-1.23393,3.50867
0.09437,-1.23393,3.50867
0.09777,-1.22439,3.48154
0.10137,-1.21811,3.46369
0.10548,-1.21811,3.46369
0.10986,-1.22124,3.47259
0.11456,-1.22755,3.49054
0.11994,-1.24038,3.52700
0.12412,-1.24038,3.52700
0.12763,-1.23393,3.50867
0.13111,-1.22755,3.49054
0.13318,-1.20881,3.43725
0.13760,-1.21190,3.44602
0.14241,-1.21811,3.46369
0.14689,-1.22124,3.47259
0.15023,-1.21500,3.45483
0.98246,-0.97951,2.78524
0.98171,-0.97549,2.77380
0.99610,-0.97349,2.76811
0.99327,-0.96754,2.75120
0.99653,-0.96754,2.75120
0.98971,-0.95779,2.72347
0.97912,-0.94446,2.68556
0.98036,-0.94259,2.68024
0.97579,-0.93516,2.65913
0.97510,-0.93150,2.64870
0.97442,-0.92786,2.63836
0.97754,-0.92786,2.63836
0.98067,-0.92786,2.63836
0.98572,-0.92967,2.64352
0.98885,-0.92967,2.64352
0.99198,-0.92967,2.64352
0.99707,-0.93150,2.64870
0.99630,-0.92786,2.63836
0.99748,-0.92605,2.63321
0.99478,-0.92067,2.61791
0.99595,-0.91889,2.61284
0.99905,-0.91889,2.61284
0.99828,-0.91534,2.60277
0.99561,-0.91008,2.58781
0.99868,-0.91008,2.58781
1.00174,-0.91008,2.58781
0.99717,-0.90316,2.56814
1.00021,-0.90316,2.56814
0.99756,-0.89804,2.55357
0.98752,-0.88631,2.52022
0.99051,-0.88631,2.52022
1.00096,-0.89298,2.53917
1.00397,-0.89298,2.53917
1.00698,-0.89298,2.53917
1.01572,-0.89804,2.55357
1.01874,-0.89804,2.55357
1.01984,-0.89635,2.54875
1.02094,-0.89466,2.54395
1.02395,-0.89466,2.54395
1.02311,-0.89130,2.53441
1.02228,-0.88797,2.52493
1.01016,-0.87489,2.48773
1.01311,-0.87489,2.48773
1.01606,-0.87489,2.48773
1.02277,-0.87812,2.49693
1.02573,-0.87812,2.49693
1.03251,-0.88138,2.50620
1.03740,-0.88302,2.51085
1.04038,-0.88302,2.51085
1.04335,-0.88302,2.51085
1.04633,-0.88302,2.51085
1.12009,-0.94259,2.68024
1.12326,-0.94259,2.68024
1.10024,-0.92067,2.61791
1.09486,-0.91358,2.59777
1.09583,-0.91183,2.59278
1.09890,-0.91183,2.59278
1.10622,-0.91534,2.60277
1.09663,-0.90488,2.57303
1.09758,-0.90316,2.56814
